# .PCD v.5 - Point Cloud Data file format
VERSION .5
FIELDS x y z
SIZE 4 4 4
TYPE F F F
COUNT 1 1 1
WIDTH 2559
HEIGHT 1
POINTS 2559
DATA ascii
1.720 0.650 0.760
1.720 0.660 -1.590
1.720 0.670 0.770
1.720 0.720 -1.590
1.720 0.740 -1.610
1.720 0.790 -1.600
1.720 0.830 -1.610
1.720 0.860 0.770
1.720 0.880 0.760
1.720 0.890 -1.580
1.720 0.950 -1.600
1.720 0.970 -1.600
1.720 1.010 0.760
1.720 1.020 -1.600
1.720 1.030 0.780
1.720 1.040 0.760
1.720 1.070 -1.610
1.720 1.080 0.770
1.720 1.100 -1.600
1.720 1.100 0.760
1.720 1.120 0.770
1.720 1.120 -1.610
1.720 1.130 -1.580
1.720 1.180 -1.590
1.720 1.180 0.770
1.720 1.200 -1.610
1.720 1.220 -1.600
1.720 1.240 -1.610
1.720 1.250 -1.580
1.720 1.300 0.770
1.720 1.310 -1.600
1.720 1.340 0.780
1.720 1.360 -1.610
1.720 1.400 0.770
1.720 1.410 -1.610
1.720 1.430 -1.600
1.720 1.430 0.770
1.720 1.450 0.770
1.720 1.470 -1.590
1.720 1.470 0.780
1.720 1.480 0.760
1.720 1.490 -1.580
1.720 1.500 0.770
1.720 1.510 -1.610
1.720 1.520 -1.590
1.720 1.550 -1.590
1.720 1.570 -1.600
1.720 1.600 0.770
1.720 1.620 -1.600
1.720 1.670 0.770
1.720 1.700 -1.590
1.720 1.700 0.780
1.720 1.720 0.770
1.720 1.730 -1.590
1.720 1.740 0.780
1.720 1.760 -1.580
1.720 1.770 0.780
1.720 1.790 -1.590
1.720 1.810 -1.580
1.720 1.840 0.780
1.720 1.860 0.770
1.720 1.880 0.780
1.720 1.910 0.780
1.720 1.910 -1.590
1.720 1.950 -1.580
1.720 2.170 -1.580
1.720 2.170 0.770
1.720 2.200 0.790
1.720 2.240 -1.600
1.720 2.250 0.780
1.720 2.300 0.760
1.720 2.330 0.780
1.720 2.360 -1.580
1.720 2.380 -1.580
1.720 2.380 0.770
1.720 2.390 0.790
1.720 2.400 -1.590
1.720 2.450 0.760
1.720 2.470 0.770
1.720 2.480 0.720
1.720 2.480 -1.500
1.720 2.490 -1.590
1.720 2.490 -1.520
1.720 2.490 -1.550
1.720 2.510 0.740
1.720 2.520 -1.520
1.720 2.520 -1.590
1.720 2.520 0.780
1.720 2.530 -1.480
1.720 2.530 -1.550
1.720 2.540 -1.310
1.720 2.540 -1.430
1.720 2.540 -1.140
1.720 2.540 0.750
1.720 2.540 -0.370
1.720 2.540 -0.260
1.720 2.540 -0.050
1.720 2.540 -0.090
1.720 2.540 0.260
1.720 2.550 -1.190
1.720 2.550 -0.950
1.720 2.550 0.780
1.720 2.550 -0.630
1.720 2.550 -0.580
1.720 2.560 -0.900
1.720 2.560 -0.830
1.720 2.560 -0.850
1.720 2.560 -0.500
1.720 2.560 -0.610
1.720 2.560 0.650
1.720 2.560 0.690
1.720 2.560 -1.480
1.720 2.570 -0.390
1.720 2.570 -0.170
1.720 2.570 -0.280
1.720 2.570 0.140
1.720 2.570 0.120
1.720 2.570 0.040
1.720 2.570 -0.060
1.720 2.570 0.400
1.720 2.570 0.300
1.720 2.570 -1.500
1.720 2.570 -1.530
1.720 2.570 -1.560
1.720 2.570 -0.920
1.720 2.570 -0.970
1.720 2.570 -0.760
1.720 2.570 -0.880
1.720 2.570 -0.450
1.720 2.580 -0.950
1.720 2.580 -1.210
1.720 2.580 -1.410
1.720 2.580 -1.440
1.720 2.580 -0.840
1.720 2.580 -0.990
1.720 2.580 0.600
1.720 2.590 -0.890
1.720 2.590 -1.050
1.720 2.590 -1.310
1.720 2.590 -1.340
1.720 2.590 -0.460
1.720 2.590 -0.500
1.720 2.590 -0.610
1.720 2.590 0.580
1.720 2.590 0.720
1.720 2.590 0.700
1.720 2.590 -1.120
1.720 2.590 -0.780
1.720 2.590 -0.800
1.720 2.590 -0.730
1.720 2.600 -0.930
1.720 2.600 -0.980
1.720 2.600 -1.260
1.720 2.600 -1.490
1.720 2.600 -1.140
1.720 2.600 -0.830
1.720 2.600 -0.870
1.720 2.610 -1.580
1.720 2.610 -1.520
1.720 2.610 -0.410
1.720 2.610 -0.300
1.720 2.610 0.430
1.720 2.610 -0.910
1.720 2.610 -0.960
1.720 2.610 -1.100
1.720 2.610 -0.700
1.720 2.610 -0.360
1.720 2.610 -0.470
1.720 2.610 -0.520
1.720 2.610 -0.080
1.720 2.610 0.170
1.720 2.610 0.130
1.720 2.610 0.500
1.720 2.610 0.280
1.720 2.610 0.730
1.720 2.610 0.710
1.720 2.620 -0.150
1.720 2.620 -0.200
1.720 2.620 -0.260
1.720 2.620 0.360
1.720 2.620 0.320
1.720 2.620 0.260
1.720 2.620 0.220
1.720 2.620 0.190
1.720 2.620 -0.800
1.720 2.620 -1.450
1.720 2.620 -1.540
1.720 2.620 0.680
1.720 2.630 0.110
1.720 2.630 0.050
1.720 2.630 0.000
1.720 2.630 -0.050
1.720 2.630 0.150
1.720 2.630 -0.360
1.720 2.630 -0.410
1.720 2.630 -0.450
1.720 2.630 -0.300
1.720 2.630 0.400
1.720 2.630 0.510
1.720 2.630 -1.400
1.720 2.630 0.760
1.720 2.630 -1.140
1.720 2.640 -1.460
1.720 2.640 -0.080
1.720 2.640 -0.130
1.720 2.640 -0.150
1.720 2.640 -0.190
1.720 2.640 -0.230
1.720 2.640 -0.260
1.720 2.640 0.180
1.720 2.640 0.080
1.720 2.640 -0.020
1.720 2.640 0.380
1.720 2.640 0.330
1.720 2.640 0.290
1.720 2.640 0.230
1.720 2.640 -0.380
1.720 2.640 -0.530
1.720 2.640 0.680
1.720 2.640 0.590
1.720 2.640 0.720
1.720 2.640 -1.240
1.720 2.640 -1.010
1.720 2.640 -1.510
1.720 2.650 -1.390
1.720 2.650 0.140
1.720 2.650 0.060
1.720 2.650 0.010
1.720 2.650 -0.040
1.720 2.650 -0.400
1.720 2.650 0.480
1.720 2.650 0.260
1.720 2.650 0.500
1.720 2.650 -1.580
1.720 2.650 -1.210
1.720 2.650 0.740
1.720 2.660 -1.340
1.720 2.660 -0.120
1.720 2.660 -0.140
1.720 2.660 0.390
1.720 2.660 -1.540
1.720 2.660 -0.940
1.720 2.660 -0.630
1.720 2.660 0.670
1.720 2.660 -0.270
1.720 2.660 -0.320
1.720 2.660 0.340
1.720 2.670 -1.290
1.720 2.670 -1.240
1.720 2.670 0.450
1.720 2.670 -0.820
1.720 2.670 -1.380
1.720 2.670 -0.970
1.720 2.670 -0.610
1.720 2.670 -0.380
1.720 2.670 -0.080
1.720 2.670 -1.190
1.720 2.680 -1.220
1.720 2.680 -1.430
1.720 2.680 -0.680
1.720 2.680 0.420
1.720 2.680 -0.030
1.720 2.680 0.720
1.720 2.690 -1.150
1.720 2.690 0.780
1.720 2.690 -1.370
1.720 2.690 -0.870
1.720 2.690 -0.360
1.720 2.690 0.180
1.720 2.690 0.470
1.720 2.700 -1.110
1.720 2.700 -0.720
1.720 2.700 -0.790
1.720 2.700 -1.490
1.720 2.700 -1.450
1.720 2.700 -0.630
1.720 2.700 -0.580
1.720 2.700 0.430
1.720 2.700 0.410
1.720 2.700 0.360
1.720 2.700 0.520
1.720 2.700 -0.910
1.720 2.710 -1.260
1.720 2.710 -1.520
1.720 2.710 -1.550
1.720 2.710 -0.700
1.720 2.710 -0.750
1.720 2.710 -0.470
1.720 2.710 -1.580
1.720 2.710 -1.170
1.720 2.710 -1.140
1.720 2.710 0.760
1.720 2.720 -1.470
1.720 2.720 -0.130
1.720 2.720 -0.250
1.720 2.720 -0.290
1.720 2.720 0.420
1.720 2.720 0.300
1.720 2.720 0.260
1.720 2.720 0.530
1.720 2.720 -1.080
1.720 2.730 -0.970
1.720 2.730 -1.200
1.720 2.740 -0.460
1.720 2.740 -0.790
1.720 2.740 -0.860
1.720 2.740 -0.930
1.720 2.740 -1.510
1.720 2.740 -1.270
1.720 2.750 0.470
1.720 2.750 0.420
1.720 2.750 -1.580
1.720 2.750 -0.810
1.720 2.750 -0.620
1.720 2.750 -0.670
1.720 2.750 -1.170
1.720 2.750 -1.190
1.720 2.750 -1.490
1.720 2.750 -1.350
1.720 2.750 -1.310
1.720 2.750 -1.390
1.720 2.750 -1.420
1.720 2.750 -1.080
1.720 2.760 -0.230
1.720 2.760 -0.010
1.720 2.760 -0.080
1.720 2.760 -0.190
1.720 2.760 0.250
1.720 2.760 0.200
1.720 2.760 -0.510
1.720 2.760 -0.580
1.720 2.760 -0.600
1.720 2.760 -0.330
1.720 2.760 -0.400
1.720 2.760 -0.440
1.720 2.760 0.750
1.720 2.760 0.680
1.720 2.760 0.630
1.720 2.760 -1.000
1.720 2.760 -1.530
1.720 2.760 -1.440
1.720 2.770 -1.510
1.720 2.770 -0.490
1.720 2.770 -0.280
1.720 2.770 -0.310
1.720 2.770 -0.350
1.720 2.770 -0.370
1.720 2.770 -0.420
1.720 2.770 -0.060
1.720 2.770 -0.100
1.720 2.770 -0.150
1.720 2.770 0.310
1.720 2.770 0.270
1.720 2.770 0.520
1.720 2.770 0.400
1.720 2.770 0.340
1.720 2.770 -0.950
1.720 2.770 -1.480
1.720 2.770 -1.210
1.720 2.770 -1.260
1.720 2.780 -0.260
1.720 2.780 0.020
1.720 2.780 -0.130
1.720 2.780 0.290
1.720 2.780 0.180
1.720 2.780 0.130
1.720 2.780 -0.880
1.720 2.780 -0.640
1.720 2.780 -0.660
1.720 2.780 -0.710
1.720 2.780 -0.830
1.720 2.780 0.780
1.720 2.780 0.730
1.720 2.780 -0.220
1.720 2.780 0.160
1.720 2.780 -1.240
1.720 2.780 -1.290
1.720 2.790 -0.320
1.720 2.790 -0.360
1.720 2.790 -0.390
1.720 2.790 -0.460
1.720 2.790 -0.500
1.720 2.790 -0.020
1.720 2.790 -0.180
1.720 2.790 0.200
1.720 2.790 0.080
1.720 2.790 0.470
1.720 2.790 0.450
1.720 2.790 0.420
1.720 2.790 0.260
1.720 2.790 0.660
1.720 2.790 0.610
1.720 2.790 0.540
1.720 2.790 -1.520
1.720 2.790 0.640
1.720 2.790 -0.410
1.720 2.790 -0.290
1.720 2.790 -0.070
1.720 2.790 -0.090
1.720 2.790 -0.540
1.720 2.790 -0.580
1.720 2.790 -0.440
1.720 2.790 0.500
1.720 2.790 -1.320
1.720 2.800 0.330
1.720 2.800 -0.340
1.720 2.800 -0.110
1.720 2.800 -0.160
1.720 2.800 -0.230
1.720 2.800 0.240
1.720 2.800 0.170
1.720 2.800 0.110
1.720 2.800 0.060
1.720 2.800 0.010
1.720 2.800 0.400
1.720 2.800 0.360
1.720 2.800 -0.940
1.720 2.800 -1.040
1.720 2.800 -0.720
1.720 2.800 -0.840
1.720 2.800 -0.870
1.720 2.800 -1.370
1.720 2.800 -0.630
1.720 2.800 0.700
1.720 2.800 -0.780
1.720 2.800 -0.700
1.720 2.800 0.590
1.720 2.800 -1.570
1.720 2.800 -0.200
1.720 2.810 -0.370
1.720 2.810 -0.490
1.720 2.810 0.780
1.720 2.810 -1.430
1.720 2.810 -1.350
1.720 2.810 0.630
1.720 2.810 -0.430
1.720 2.810 -0.300
1.720 2.810 0.030
1.720 2.810 0.310
1.720 2.810 0.210
1.720 2.810 0.150
1.720 2.810 0.440
1.720 2.810 0.490
1.720 2.820 -1.080
1.720 2.820 -1.510
1.720 2.820 -0.610
1.720 2.820 0.540
1.720 2.820 -0.390
1.720 2.820 -0.460
1.720 2.820 -0.540
1.720 2.820 0.380
1.720 2.820 0.260
1.720 2.820 0.520
1.720 2.820 -1.140
1.720 2.820 -0.960
1.720 2.820 -1.010
1.720 2.820 -0.900
1.720 2.820 -0.920
1.720 2.820 -0.770
1.720 2.820 -0.850
1.720 2.820 0.420
1.720 2.830 -0.050
1.720 2.830 -0.870
1.720 2.830 -0.580
1.720 2.830 0.730
1.720 2.830 -1.470
1.720 2.830 -1.120
1.720 2.830 -0.720
1.720 2.830 -0.810
1.720 2.830 0.320
1.720 2.830 -0.290
1.720 2.830 -0.310
1.720 2.830 0.200
1.720 2.840 0.580
1.720 2.840 0.530
1.720 2.840 0.750
1.720 2.840 0.670
1.720 2.840 0.500
1.720 2.840 0.450
1.720 2.840 -1.230
1.720 2.840 -1.100
1.720 2.850 -1.290
1.720 2.850 -1.340
1.720 2.850 -1.370
1.720 2.850 -1.460
1.720 2.850 0.600
1.720 2.860 -0.750
1.720 2.860 -0.820
1.720 2.860 -0.980
1.720 2.860 -1.060
1.720 2.860 -1.110
1.720 2.860 -0.860
1.720 2.860 -0.420
1.720 2.860 -0.450
1.720 2.860 -0.570
1.720 2.860 -0.610
1.720 2.860 -0.260
1.720 2.860 0.030
1.720 2.860 0.550
1.720 2.860 -0.080
1.720 2.860 0.190
1.720 2.860 0.470
1.720 2.870 0.650
1.720 2.870 0.720
1.720 2.870 0.080
1.720 2.870 -0.030
1.720 2.870 0.240
1.720 2.870 0.670
1.720 2.870 0.590
1.720 2.870 -1.450
1.720 2.870 -1.490
1.720 2.880 -0.620
1.720 2.880 0.630
1.720 2.880 -0.920
1.720 2.880 -0.860
1.720 2.880 -1.030
1.720 2.880 -1.110
1.720 2.880 -1.060
1.720 2.880 -0.820
1.720 2.890 0.580
1.720 2.890 -0.500
1.720 2.890 -0.410
1.720 2.890 -0.720
1.720 2.890 -0.770
1.720 2.890 -0.840
1.720 2.890 -0.940
1.720 2.890 0.710
1.720 2.890 -1.350
1.720 2.890 -1.430
1.720 2.890 -1.080
1.720 2.890 -1.160
1.720 2.890 -0.880
1.720 2.890 -1.230
1.720 2.890 -1.260
1.720 2.890 -1.450
1.720 2.890 -0.990
1.720 2.890 -0.030
1.720 2.890 -0.100
1.720 2.900 -0.390
1.720 2.900 0.350
1.720 2.900 0.170
1.720 2.900 0.400
1.720 2.900 -1.380
1.720 2.900 -1.290
1.720 2.900 -1.480
1.720 2.910 -0.280
1.720 2.910 -0.050
1.720 2.910 0.690
1.720 2.910 -0.510
1.720 2.910 -0.560
1.720 2.910 0.070
1.720 2.910 -1.460
1.720 2.920 -0.090
1.720 2.920 0.560
1.720 2.920 0.510
1.720 2.920 0.600
1.720 2.920 -0.400
1.720 2.920 -0.260
1.720 2.920 -0.330
1.720 2.920 0.370
1.720 2.920 0.330
1.720 2.920 0.300
1.720 2.920 0.140
1.720 2.920 -1.540
1.720 2.920 -1.570
1.720 2.930 -0.220
1.720 2.930 0.350
1.720 2.930 0.280
1.720 2.930 0.530
1.720 2.930 -0.490
1.720 2.930 -1.360
1.720 2.930 -0.550
1.720 2.930 -0.620
1.720 2.930 -0.060
1.720 2.930 -0.130
1.720 2.930 0.100
1.720 2.940 -0.190
1.720 2.940 0.130
1.720 2.940 0.030
1.720 2.940 0.000
1.720 2.940 0.060
1.720 2.940 -0.080
1.720 2.940 0.250
1.720 2.940 -0.420
1.720 2.940 -0.380
1.720 2.940 0.570
1.720 2.940 -1.230
1.720 2.940 -0.660
1.720 2.940 0.160
1.720 2.940 -1.580
1.720 2.940 0.310
1.720 2.950 -0.230
1.720 2.950 -0.030
1.720 2.950 0.330
1.720 2.950 0.370
1.720 2.950 0.230
1.720 2.950 -0.360
1.720 2.950 -0.440
1.720 2.950 -0.470
1.720 2.950 -0.520
1.720 2.950 -0.640
1.720 2.950 -0.270
1.720 2.950 0.630
1.720 2.950 0.550
1.720 2.950 -0.570
1.720 2.950 -0.740
1.720 2.960 -0.010
1.720 2.960 -0.060
1.720 2.960 0.120
1.720 2.960 0.170
1.720 2.960 -1.560
1.720 2.960 -0.250
1.720 2.960 0.020
1.720 2.960 0.140
1.720 2.960 -0.960
1.720 2.960 -0.300
1.720 2.970 0.050
1.720 2.970 -0.040
1.720 2.970 0.310
1.720 2.970 0.240
1.720 2.970 0.200
1.720 2.980 -1.300
1.720 2.980 -1.330
1.720 2.980 -1.540
1.720 2.980 -1.570
1.720 2.980 -0.690
1.720 2.980 0.490
1.720 2.980 0.370
1.720 2.980 0.340
1.720 2.980 -0.890
1.720 2.980 -0.840
1.720 2.980 -0.440
1.720 2.980 0.570
1.720 2.990 -0.590
1.720 2.990 0.000
1.720 2.990 -0.180
1.720 2.990 -0.970
1.720 2.990 -0.710
1.720 3.000 0.380
1.720 3.000 -0.650
1.720 3.000 0.080
1.720 3.000 0.030
1.720 3.000 0.540
1.720 3.000 0.410
1.720 3.000 -1.000
1.720 3.000 -1.050
1.720 3.010 -0.700
1.720 3.010 -1.570
1.720 3.020 -1.160
1.720 3.020 -1.360
1.720 3.020 0.600
1.720 3.020 -0.250
1.720 3.020 -0.370
1.720 3.020 -0.450
1.720 3.020 -0.010
1.720 3.020 0.270
1.720 3.020 0.390
1.720 3.030 -0.280
1.720 3.030 -0.350
1.720 3.030 -0.470
1.720 3.030 -0.500
1.720 3.030 0.010
1.720 3.030 -0.110
1.720 3.030 -0.150
1.720 3.030 -0.180
1.720 3.030 0.350
1.720 3.030 0.320
1.720 3.030 0.250
1.720 3.030 0.200
1.720 3.030 0.130
1.720 3.030 0.570
1.720 3.030 0.520
1.720 3.030 0.470
1.720 3.030 0.370
1.720 3.030 -0.980
1.720 3.040 0.490
1.720 3.040 0.440
1.720 3.040 -1.290
1.720 3.040 -1.010
1.720 3.050 -0.480
1.720 3.050 0.550
1.720 3.050 0.360
1.720 3.050 -0.430
1.720 3.050 -0.140
1.720 3.050 -0.190
1.720 3.050 -0.260
1.720 3.050 -0.310
1.720 3.050 -0.330
1.720 3.050 -0.380
1.720 3.050 0.140
1.720 3.050 0.410
1.720 3.050 0.340
1.720 3.050 0.310
1.720 3.050 0.290
1.720 3.050 0.240
1.720 3.050 0.190
1.720 3.050 -1.380
1.720 3.050 -1.410
1.720 3.060 -0.280
1.720 3.060 -0.500
1.720 3.060 0.160
1.720 3.060 0.040
1.720 3.060 -0.620
1.720 3.060 -0.020
1.720 3.060 0.260
1.720 3.060 0.220
1.720 3.060 0.460
1.720 3.060 -1.440
1.720 3.070 -0.210
1.720 3.070 0.280
1.720 3.070 0.090
1.720 3.070 -0.550
1.720 3.070 0.540
1.720 3.070 -0.390
1.720 3.070 -0.240
1.720 3.070 0.070
1.720 3.080 -0.660
1.720 3.080 -1.460
1.720 3.080 -1.490
1.720 3.080 -0.410
1.720 3.080 -0.440
1.720 3.080 -0.460
1.720 3.080 -0.510
1.720 3.080 -0.120
1.720 3.080 0.310
1.720 3.080 0.510
1.720 3.090 -0.540
1.720 3.090 -0.590
1.720 3.090 0.560
1.720 3.090 0.460
1.720 3.090 -1.390
1.720 3.100 -1.570
1.720 3.100 -0.030
1.720 3.100 -0.080
1.720 3.100 0.200
1.720 3.100 0.160
1.720 3.100 0.030
1.720 3.100 -0.630
1.720 3.100 -1.410
1.720 3.100 -0.170
1.720 3.100 -0.300
1.720 3.100 -0.100
1.720 3.100 0.380
1.720 3.100 -1.370
1.720 3.110 -1.550
1.720 3.110 -1.030
1.720 3.110 -0.650
1.720 3.110 -0.720
1.720 3.110 -0.120
1.720 3.110 -0.190
1.720 3.110 0.120
1.720 3.110 0.070
1.720 3.120 0.220
1.720 3.120 -0.610
1.720 3.120 -0.510
1.720 3.120 0.460
1.720 3.120 0.000
1.720 3.130 -0.560
1.720 3.130 -0.630
1.720 3.130 -1.430
1.720 3.130 -0.740
1.720 3.130 -0.400
1.720 3.140 0.480
1.720 3.140 -1.010
1.720 3.140 -1.210
1.720 3.140 -0.530
1.720 3.140 -0.580
1.720 3.140 -0.600
1.720 3.150 0.120
1.720 3.150 0.070
1.720 3.150 0.450
1.720 3.150 0.370
1.720 3.150 -0.730
1.720 3.160 -0.490
1.720 3.160 -0.540
1.720 3.160 -0.110
1.720 3.160 0.430
1.720 3.170 -0.290
1.720 3.170 -0.160
1.720 3.170 -0.240
1.720 3.170 0.080
1.720 3.170 -1.290
1.720 3.190 -1.360
1.720 3.190 -0.280
1.720 3.190 -0.330
1.720 3.190 -0.460
1.720 3.190 0.270
1.720 3.220 -1.180
1.720 3.230 -1.160
1.720 3.230 -1.000
1.720 3.250 0.270
1.720 3.250 0.200
1.720 3.250 -0.910
1.720 3.260 -0.540
1.720 3.260 -0.860
1.720 3.270 0.280
1.720 3.270 -0.810
1.720 3.270 -0.600
1.720 3.270 -0.630
1.720 3.280 -0.210
1.720 3.280 0.080
1.720 3.280 0.000
1.720 3.280 -0.040
1.720 3.280 -0.140
1.720 3.280 0.180
1.730 -1.090 -1.620
1.730 -1.020 -1.620
1.730 -1.010 -1.600
1.730 -0.950 -1.640
1.730 -0.930 -1.630
1.730 -0.920 0.390
1.730 -0.910 -1.620
1.730 -0.900 0.390
1.730 -0.880 0.380
1.730 -0.860 0.610
1.730 -0.860 0.510
1.730 -0.850 0.640
1.730 -0.850 0.700
1.730 -0.850 0.590
1.730 -0.840 0.620
1.730 -0.840 0.660
1.730 -0.830 0.370
1.730 -0.830 0.550
1.730 -0.830 0.600
1.730 -0.830 0.640
1.730 -0.830 -1.620
1.730 -0.820 0.580
1.730 -0.820 0.420
1.730 -0.820 0.450
1.730 -0.810 0.510
1.730 -0.810 0.610
1.730 -0.800 0.530
1.730 -0.800 0.570
1.730 -0.800 0.430
1.730 -0.800 0.460
1.730 -0.800 0.630
1.730 -0.790 0.590
1.730 -0.790 0.650
1.730 -0.790 0.710
1.730 -0.790 0.500
1.730 -0.790 0.480
1.730 -0.790 -1.620
1.730 -0.780 0.450
1.730 -0.780 0.520
1.730 -0.780 0.620
1.730 -0.780 0.670
1.730 -0.780 0.550
1.730 -0.780 -1.590
1.730 -0.770 0.720
1.730 -0.770 -1.610
1.730 -0.770 0.700
1.730 -0.770 0.420
1.730 -0.770 0.760
1.730 -0.750 0.680
1.730 -0.750 0.750
1.730 -0.750 -1.620
1.730 -0.740 -1.600
1.730 -0.740 0.700
1.730 -0.730 0.760
1.730 -0.710 0.760
1.730 -0.690 0.770
1.730 -0.690 -1.620
1.730 -0.680 0.750
1.730 -0.670 0.780
1.730 -0.660 0.760
1.730 -0.660 -1.600
1.730 -0.640 0.760
1.730 -0.620 -1.620
1.730 -0.560 -1.610
1.730 -0.490 0.780
1.730 -0.470 -1.590
1.730 -0.470 0.760
1.730 -0.450 -1.600
1.730 -0.410 -1.590
1.730 -0.400 0.780
1.730 -0.400 -1.610
1.730 -0.390 0.760
1.730 -0.380 0.780
1.730 -0.380 -1.600
1.730 -0.360 0.770
1.730 -0.350 -1.600
1.730 -0.330 -1.590
1.730 -0.330 0.760
1.730 -0.310 0.760
1.730 -0.300 0.780
1.730 -0.290 0.760
1.730 -0.280 0.780
1.730 -0.270 -1.590
1.730 -0.260 0.780
1.730 -0.240 0.770
1.730 -0.220 -1.590
1.730 -0.210 0.780
1.730 -0.170 0.760
1.730 -0.130 -1.630
1.730 -0.110 0.750
1.730 -0.100 -1.600
1.730 -0.090 0.760
1.730 -0.080 -1.610
1.730 -0.070 -1.590
1.730 -0.050 -1.600
1.730 -0.040 -1.620
1.730 -0.030 -1.590
1.730 -0.020 -1.630
1.730 -0.010 0.780
1.730 0.010 0.770
1.730 0.020 -1.590
1.730 0.030 0.780
1.730 0.030 -1.620
1.730 0.050 0.750
1.730 0.070 0.780
1.730 0.080 -1.620
1.730 0.090 0.780
1.730 0.090 0.750
1.730 0.110 0.770
1.730 0.130 0.760
1.730 0.150 -1.610
1.730 0.150 0.760
1.730 0.170 0.780
1.730 0.170 -1.600
1.730 0.190 0.770
1.730 0.190 -1.590
1.730 0.210 -1.600
1.730 0.210 0.760
1.730 0.230 0.780
1.730 0.230 -1.610
1.730 0.230 0.750
1.730 0.240 -1.590
1.730 0.260 0.780
1.730 0.270 -1.600
1.730 0.300 -1.600
1.730 0.300 0.750
1.730 0.310 -1.620
1.730 0.330 0.760
1.730 0.340 -1.610
1.730 0.360 -1.600
1.730 0.380 0.760
1.730 0.410 0.760
1.730 0.420 0.780
1.730 0.430 0.760
1.730 0.440 0.780
1.730 0.440 -1.600
1.730 0.450 -1.620
1.730 0.460 0.770
1.730 0.480 0.780
1.730 0.480 -1.600
1.730 0.480 0.750
1.730 0.500 -1.600
1.730 0.500 0.760
1.730 0.530 -1.600
1.730 0.540 -1.620
1.730 0.560 -1.610
1.730 0.570 0.770
1.730 0.590 -1.610
1.730 0.590 0.760
1.730 0.600 -1.590
1.730 0.610 0.770
1.730 0.620 -1.600
1.730 0.630 -1.620
1.730 0.650 -1.610
1.730 0.680 -1.610
1.730 0.690 0.760
1.730 0.700 -1.600
1.730 0.700 0.780
1.730 0.720 0.760
1.730 0.720 -1.610
1.730 0.740 -1.590
1.730 0.750 0.760
1.730 0.760 -1.600
1.730 0.770 0.770
1.730 0.790 0.760
1.730 0.790 -1.620
1.730 0.800 0.780
1.730 0.810 -1.610
1.730 0.820 0.760
1.730 0.820 -1.590
1.730 0.840 0.770
1.730 0.850 -1.600
1.730 0.870 -1.590
1.730 0.880 -1.610
1.730 0.900 0.760
1.730 0.900 -1.600
1.730 0.920 -1.600
1.730 0.920 0.770
1.730 0.930 -1.580
1.730 0.940 0.760
1.730 0.960 0.770
1.730 0.980 0.770
1.730 0.990 -1.600
1.730 1.000 -1.620
1.730 1.040 -1.590
1.730 1.070 -1.590
1.730 1.140 -1.600
1.730 1.140 0.770
1.730 1.160 -1.610
1.730 1.160 0.760
1.730 1.200 0.760
1.730 1.220 0.770
1.730 1.240 0.760
1.730 1.260 0.770
1.730 1.260 -1.600
1.730 1.280 -1.590
1.730 1.320 0.770
1.730 1.330 -1.600
1.730 1.350 -1.590
1.730 1.360 0.780
1.730 1.380 -1.600
1.730 1.380 0.770
1.730 1.400 -1.590
1.730 1.450 -1.590
1.730 1.490 -1.600
1.730 1.520 0.770
1.730 1.540 0.760
1.730 1.560 0.770
1.730 1.580 0.770
1.730 1.590 -1.590
1.730 1.620 0.780
1.730 1.640 -1.600
1.730 1.640 0.770
1.730 1.650 -1.580
1.730 1.680 -1.590
1.730 1.750 -1.600
1.730 1.790 0.780
1.730 1.820 -1.600
1.730 1.830 -1.580
1.730 1.850 -1.590
1.730 1.870 -1.580
1.730 1.930 -1.590
1.730 1.940 0.780
1.730 1.980 -1.590
1.730 2.000 -1.580
1.730 2.020 -1.590
1.730 2.020 0.780
1.730 2.050 -1.590
1.730 2.050 0.790
1.730 2.070 -1.580
1.730 2.080 0.780
1.730 2.090 -1.590
1.730 2.110 -1.600
1.730 2.110 0.790
1.730 2.130 0.780
1.730 2.140 -1.580
1.730 2.150 0.790
1.730 2.180 0.790
1.730 2.190 -1.590
1.730 2.220 -1.580
1.730 2.230 0.770
1.730 2.250 0.760
1.730 2.250 -1.580
1.730 2.270 0.770
1.730 2.270 -1.590
1.730 2.270 0.790
1.730 2.290 0.780
1.730 2.290 -1.580
1.730 2.310 0.790
1.730 2.330 0.760
1.730 2.350 0.790
1.730 2.350 0.770
1.730 2.380 -1.530
1.730 2.400 -1.560
1.730 2.410 -1.540
1.730 2.410 0.750
1.730 2.420 0.770
1.730 2.430 0.790
1.730 2.450 -1.580
1.730 2.450 -1.530
1.730 2.460 -1.510
1.730 2.460 -1.120
1.730 2.460 0.790
1.730 2.470 -1.050
1.730 2.480 -0.960
1.730 2.480 -1.030
1.730 2.490 -0.650
1.730 2.490 0.700
1.730 2.490 -1.170
1.730 2.490 0.750
1.730 2.490 -1.450
1.730 2.500 -0.230
1.730 2.500 -0.500
1.730 2.500 -1.050
1.730 2.500 -1.480
1.730 2.510 -1.460
1.730 2.510 -0.390
1.730 2.510 -0.430
1.730 2.510 -0.480
1.730 2.510 -0.520
1.730 2.510 -0.560
1.730 2.510 -0.260
1.730 2.510 -0.280
1.730 2.510 -0.330
1.730 2.510 -0.110
1.730 2.510 0.300
1.730 2.510 0.620
1.730 2.510 0.510
1.730 2.510 0.470
1.730 2.510 0.400
1.730 2.510 0.760
1.730 2.520 -0.410
1.730 2.520 -0.200
1.730 2.520 -0.310
1.730 2.520 0.110
1.730 2.520 0.080
1.730 2.520 0.040
1.730 2.520 0.000
1.730 2.520 -0.030
1.730 2.520 -0.050
1.730 2.520 -0.090
1.730 2.520 0.360
1.730 2.520 0.340
1.730 2.520 0.320
1.730 2.520 0.280
1.730 2.520 0.250
1.730 2.520 0.210
1.730 2.520 0.170
1.730 2.520 0.420
1.730 2.520 0.720
1.730 2.520 -1.190
1.730 2.520 -1.270
1.730 2.520 -1.310
1.730 2.520 -1.070
1.730 2.520 -1.120
1.730 2.520 -1.170
1.730 2.530 -0.600
1.730 2.530 -0.540
1.730 2.530 -1.240
1.730 2.540 -0.430
1.730 2.540 -0.490
1.730 2.540 -0.210
1.730 2.540 -0.230
1.730 2.540 -0.280
1.730 2.540 -0.300
1.730 2.540 0.100
1.730 2.540 0.030
1.730 2.540 0.200
1.730 2.540 -1.390
1.730 2.540 -1.580
1.730 2.540 0.050
1.730 2.540 -0.010
1.730 2.540 -0.070
1.730 2.550 -1.010
1.730 2.550 -1.450
1.730 2.550 0.310
1.730 2.550 -1.210
1.730 2.550 -1.260
1.730 2.550 -1.290
1.730 2.550 -1.340
1.730 2.550 -1.090
1.730 2.550 -1.120
1.730 2.550 -1.160
1.730 2.550 -0.750
1.730 2.550 -0.390
1.730 2.550 -0.410
1.730 2.550 -0.470
1.730 2.550 -0.110
1.730 2.550 -0.320
1.730 2.550 0.070
1.730 2.550 0.240
1.730 2.550 0.170
1.730 2.550 0.470
1.730 2.550 0.430
1.730 2.560 -1.410
1.730 2.560 0.760
1.730 2.560 -0.030
1.730 2.560 -0.140
1.730 2.560 0.020
1.730 2.560 -0.700
1.730 2.560 -0.810
1.730 2.560 -1.240
1.730 2.560 -0.650
1.730 2.560 -0.520
1.730 2.560 -0.540
1.730 2.560 0.340
1.730 2.560 0.280
1.730 2.560 0.540
1.730 2.560 0.520
1.730 2.560 0.450
1.730 2.560 -0.090
1.730 2.560 -0.190
1.730 2.570 -1.140
1.730 2.570 -1.390
1.730 2.570 -1.280
1.730 2.570 -1.330
1.730 2.570 -1.360
1.730 2.570 0.000
1.730 2.570 -0.630
1.730 2.570 -0.370
1.730 2.570 -0.590
1.730 2.570 -0.260
1.730 2.570 0.250
1.730 2.570 0.190
1.730 2.570 0.670
1.730 2.570 0.630
1.730 2.570 0.560
1.730 2.570 -0.300
1.730 2.570 -0.210
1.730 2.570 0.220
1.730 2.570 0.320
1.730 2.580 0.750
1.730 2.580 -0.430
1.730 2.580 -0.150
1.730 2.580 -0.320
1.730 2.580 0.100
1.730 2.580 0.060
1.730 2.580 -0.040
1.730 2.580 -0.080
1.730 2.580 0.380
1.730 2.580 0.170
1.730 2.580 0.650
1.730 2.580 0.430
1.730 2.580 -1.180
1.730 2.580 -1.580
1.730 2.580 -1.100
1.730 2.580 0.780
1.730 2.590 -0.640
1.730 2.590 -0.710
1.730 2.590 -0.750
1.730 2.590 -0.910
1.730 2.590 -1.010
1.730 2.590 -0.660
1.730 2.590 -0.390
1.730 2.590 -0.410
1.730 2.590 -0.480
1.730 2.590 -0.520
1.730 2.590 -0.130
1.730 2.590 -0.240
1.730 2.590 -0.350
1.730 2.590 0.040
1.730 2.590 -0.060
1.730 2.590 -1.230
1.730 2.590 -1.550
1.730 2.590 -0.170
1.730 2.590 -0.280
1.730 2.590 0.130
1.730 2.590 0.010
1.730 2.590 0.240
1.730 2.600 -0.580
1.730 2.600 0.640
1.730 2.600 0.760
1.730 2.600 -0.440
1.730 2.600 -0.110
1.730 2.600 -0.190
1.730 2.600 -0.220
1.730 2.600 -0.260
1.730 2.600 -0.330
1.730 2.600 0.080
1.730 2.600 0.410
1.730 2.600 0.360
1.730 2.600 0.340
1.730 2.600 0.300
1.730 2.600 0.210
1.730 2.600 0.680
1.730 2.600 0.610
1.730 2.600 0.560
1.730 2.600 0.450
1.730 2.600 -1.360
1.730 2.600 0.390
1.730 2.610 -0.490
1.730 2.610 -0.540
1.730 2.610 -0.600
1.730 2.610 0.580
1.730 2.610 0.540
1.730 2.610 -0.760
1.730 2.610 -1.420
1.730 2.610 -0.670
1.730 2.620 -0.280
1.730 2.620 -0.320
1.730 2.620 0.600
1.730 2.620 0.470
1.730 2.620 -0.630
1.730 2.620 -0.720
1.730 2.620 -1.490
1.730 2.620 -1.200
1.730 2.620 -1.280
1.730 2.620 -0.890
1.730 2.620 -1.030
1.730 2.620 -1.060
1.730 2.620 -1.080
1.730 2.620 -0.570
1.730 2.620 -0.390
1.730 2.620 -0.430
1.730 2.620 -0.100
1.730 2.620 -0.170
1.730 2.620 -0.230
1.730 2.620 0.240
1.730 2.620 0.090
1.730 2.620 0.020
1.730 2.620 0.660
1.730 2.620 0.780
1.730 2.620 0.630
1.730 2.630 0.130
1.730 2.630 -0.650
1.730 2.630 -0.690
1.730 2.630 0.550
1.730 2.630 -1.560
1.730 2.630 0.530
1.730 2.630 -0.850
1.730 2.630 -0.760
1.730 2.640 -0.320
1.730 2.640 -0.430
1.730 2.640 -0.470
1.730 2.640 -0.490
1.730 2.640 -0.210
1.730 2.640 -0.280
1.730 2.640 0.440
1.730 2.640 0.420
1.730 2.640 0.570
1.730 2.640 0.460
1.730 2.640 -1.040
1.730 2.640 -1.080
1.730 2.640 -0.870
1.730 2.640 -0.920
1.730 2.650 -1.440
1.730 2.650 -0.060
1.730 2.650 -0.170
1.730 2.650 0.100
1.730 2.650 0.030
1.730 2.650 0.360
1.730 2.650 0.310
1.730 2.650 0.210
1.730 2.650 -0.580
1.730 2.650 -1.160
1.730 2.650 -1.190
1.730 2.650 -1.260
1.730 2.650 -1.290
1.730 2.650 -0.770
1.730 2.650 -0.840
1.730 2.650 -0.890
1.730 2.650 -0.960
1.730 2.650 -0.990
1.730 2.650 -1.110
1.730 2.650 -0.800
1.730 2.650 -0.550
1.730 2.650 -0.300
1.730 2.650 0.640
1.730 2.650 -0.340
1.730 2.660 0.720
1.730 2.660 -1.060
1.730 2.660 -0.750
1.730 2.660 -0.500
1.730 2.660 -0.660
1.730 2.660 -0.710
1.730 2.660 -0.450
1.730 2.660 -0.100
1.730 2.660 -1.020
1.730 2.660 0.690
1.730 2.660 -0.360
1.730 2.660 0.180
1.730 2.660 0.160
1.730 2.660 -0.010
1.730 2.660 0.290
1.730 2.660 0.240
1.730 2.660 -1.490
1.730 2.660 -1.520
1.730 2.660 -0.220
1.730 2.660 0.120
1.730 2.660 0.080
1.730 2.660 -0.250
1.730 2.670 -1.580
1.730 2.670 0.780
1.730 2.670 -0.400
1.730 2.670 -0.180
1.730 2.670 -0.290
1.730 2.670 0.520
1.730 2.670 -0.430
1.730 2.670 -0.480
1.730 2.670 -0.540
1.730 2.670 -0.590
1.730 2.670 0.480
1.730 2.670 -0.520
1.730 2.670 0.270
1.730 2.670 0.220
1.730 2.670 0.140
1.730 2.670 0.590
1.730 2.670 0.560
1.730 2.670 0.630
1.730 2.670 -1.560
1.730 2.670 -1.460
1.730 2.670 -0.730
1.730 2.670 0.320
1.730 2.670 0.370
1.730 2.680 -1.510
1.730 2.680 0.030
1.730 2.680 0.250
1.730 2.680 -1.480
1.730 2.680 -0.910
1.730 2.680 -0.570
1.730 2.680 -0.630
1.730 2.680 -0.700
1.730 2.680 0.660
1.730 2.680 0.610
1.730 2.680 0.100
1.730 2.690 -1.190
1.730 2.690 -1.240
1.730 2.690 -1.270
1.730 2.690 -1.320
1.730 2.690 -1.350
1.730 2.690 -0.960
1.730 2.690 -1.030
1.730 2.690 -0.810
1.730 2.690 0.700
1.730 2.690 -0.770
1.730 2.690 -0.340
1.730 2.690 -0.390
1.730 2.690 -0.490
1.730 2.690 -0.280
1.730 2.690 0.210
1.730 2.700 -1.390
1.730 2.700 -1.090
1.730 2.700 -0.830
1.730 2.700 -0.850
1.730 2.700 -0.890
1.730 2.700 -0.610
1.730 2.700 -0.450
1.730 2.700 -0.540
1.730 2.700 0.540
1.730 2.710 -1.290
1.730 2.710 -1.060
1.730 2.710 0.160
1.730 2.710 0.050
1.730 2.710 -1.200
1.730 2.710 -0.930
1.730 2.710 -0.650
1.730 2.710 0.650
1.730 2.710 0.580
1.730 2.720 -0.600
1.730 2.720 0.680
1.730 2.720 -1.240
1.730 2.720 -1.320
1.730 2.720 -1.500
1.730 2.720 -0.190
1.730 2.720 0.470
1.730 2.720 -1.450
1.730 2.720 -1.370
1.730 2.720 -0.630
1.730 2.720 -0.810
1.730 2.720 -0.350
1.730 2.720 -0.420
1.730 2.720 -0.510
1.730 2.720 -0.010
1.730 2.720 -0.060
1.730 2.720 0.200
1.730 2.720 0.090
1.730 2.720 0.500
1.730 2.720 0.730
1.730 2.720 0.610
1.730 2.720 -1.000
1.730 2.720 -0.840
1.730 2.720 -0.680
1.730 2.720 -0.770
1.730 2.730 -1.560
1.730 2.730 -1.530
1.730 2.730 -0.530
1.730 2.730 0.570
1.730 2.730 -0.750
1.730 2.730 -1.160
1.730 2.730 -1.050
1.730 2.730 -1.120
1.730 2.730 -1.340
1.730 2.730 -1.420
1.730 2.730 -0.890
1.730 2.740 -0.370
1.730 2.740 -0.440
1.730 2.740 -0.480
1.730 2.740 -0.080
1.730 2.740 -0.150
1.730 2.740 -0.260
1.730 2.740 0.440
1.730 2.740 0.390
1.730 2.740 0.350
1.730 2.740 0.320
1.730 2.740 0.280
1.730 2.740 0.550
1.730 2.740 0.520
1.730 2.740 -0.570
1.730 2.740 -0.640
1.730 2.740 -0.710
1.730 2.740 -0.730
1.730 2.740 0.770
1.730 2.740 0.740
1.730 2.740 0.700
1.730 2.740 0.650
1.730 2.740 -0.950
1.730 2.740 -0.910
1.730 2.740 -1.010
1.730 2.750 -1.460
1.730 2.750 -0.040
1.730 2.750 -0.110
1.730 2.750 -0.170
1.730 2.750 0.170
1.730 2.750 0.130
1.730 2.750 0.100
1.730 2.750 0.060
1.730 2.750 0.010
1.730 2.750 0.300
1.730 2.750 -0.550
1.730 2.750 0.720
1.730 2.750 0.610
1.730 2.750 -0.970
1.730 2.750 -0.880
1.730 2.750 -1.220
1.730 2.750 -1.030
1.730 2.750 -1.060
1.730 2.760 0.150
1.730 2.760 0.490
1.730 2.760 0.450
1.730 2.760 -0.760
1.730 2.760 -0.830
1.730 2.760 -0.720
1.730 2.760 0.230
1.730 2.760 -1.330
1.730 2.770 -1.570
1.730 2.770 -0.030
1.730 2.770 0.050
1.730 2.770 0.380
1.730 2.770 -0.620
1.730 2.770 -0.690
1.730 2.770 -0.780
1.730 2.770 0.660
1.730 2.770 -0.980
1.730 2.770 -1.020
1.730 2.770 -1.050
1.730 2.770 -0.920
1.730 2.770 -0.850
1.730 2.770 -0.560
1.730 2.770 -1.190
1.730 2.770 -1.170
1.730 2.780 -1.350
1.730 2.780 -1.550
1.730 2.780 0.000
1.730 2.780 0.580
1.730 2.780 0.680
1.730 2.780 -0.900
1.730 2.780 -1.430
1.730 2.780 -1.460
1.730 2.780 -1.380
1.730 2.780 -1.000
1.730 2.780 -0.800
1.730 2.780 0.760
1.730 2.780 0.220
1.730 2.780 0.100
1.730 2.790 -0.040
1.730 2.790 0.310
1.730 2.790 -0.740
1.730 2.790 -1.410
1.730 2.790 -1.270
1.730 2.790 -1.180
1.730 2.790 -0.520
1.730 2.790 0.560
1.730 2.800 -1.220
1.730 2.800 -1.250
1.730 2.800 -1.450
1.730 2.800 -1.480
1.730 2.800 0.380
1.730 2.800 -0.600
1.730 2.800 -0.650
1.730 2.800 -0.670
1.730 2.800 0.520
1.730 2.800 0.750
1.730 2.800 -0.990
1.730 2.800 -1.070
1.730 2.800 -1.120
1.730 2.800 -0.260
1.730 2.800 0.290
1.730 2.810 -1.400
1.730 2.810 -0.410
1.730 2.810 0.470
1.730 2.810 0.660
1.730 2.810 0.610
1.730 2.810 -0.510
1.730 2.810 -0.580
1.730 2.810 -0.320
1.730 2.810 -0.070
1.730 2.810 -0.140
1.730 2.810 -0.180
1.730 2.810 0.570
1.730 2.810 0.730
1.730 2.810 -1.100
1.730 2.820 -1.160
1.730 2.820 -1.380
1.730 2.820 -0.160
1.730 2.820 -0.250
1.730 2.820 0.130
1.730 2.820 0.100
1.730 2.820 0.080
1.730 2.820 0.010
1.730 2.820 -0.020
1.730 2.820 0.360
1.730 2.820 0.240
1.730 2.820 -0.090
1.730 2.820 0.170
1.730 2.820 -0.830
1.730 2.820 -0.630
1.730 2.820 -0.660
1.730 2.820 -0.750
1.730 2.820 0.710
1.730 2.820 -1.210
1.730 2.820 -0.980
1.730 2.820 -0.200
1.730 2.830 -1.060
1.730 2.830 -1.300
1.730 2.830 -1.330
1.730 2.830 -0.350
1.730 2.830 -0.430
1.730 2.830 0.560
1.730 2.830 0.630
1.730 2.830 0.770
1.730 2.830 -0.230
1.730 2.830 0.060
1.730 2.830 0.030
1.730 2.830 0.290
1.730 2.830 -1.260
1.730 2.840 -1.010
1.730 2.840 -1.040
1.730 2.840 -0.970
1.730 2.840 -0.010
1.730 2.840 -0.080
1.730 2.840 -0.190
1.730 2.840 0.140
1.730 2.840 0.380
1.730 2.840 -0.460
1.730 2.840 -0.530
1.730 2.840 -0.110
1.730 2.840 -0.270
1.730 2.840 0.180
1.730 2.840 0.110
1.730 2.840 0.340
1.730 2.840 0.650
1.730 2.840 -1.420
1.730 2.850 -0.920
1.730 2.850 -1.210
1.730 2.850 -1.130
1.730 2.850 -1.180
1.730 2.850 -1.440
1.730 2.850 -0.130
1.730 2.850 0.230
1.730 2.850 0.270
1.730 2.850 -1.570
1.730 2.850 -1.510
1.730 2.860 -0.800
1.730 2.860 -1.390
1.730 2.870 -0.780
1.730 2.870 -1.090
1.730 2.870 -1.310
1.730 2.870 -1.340
1.730 2.880 -0.690
1.730 2.880 -0.970
1.730 2.880 -1.210
1.730 2.890 -0.550
1.730 2.890 -0.670
1.730 2.890 0.670
1.730 2.890 0.730
1.730 2.890 -0.480
1.730 2.890 -0.250
1.730 2.900 -0.600
1.730 2.900 -0.640
1.730 2.900 -0.460
1.730 2.900 0.560
1.730 2.900 0.510
1.730 2.900 0.470
1.730 2.900 0.650
1.730 2.900 0.610
1.730 2.900 -0.900
1.730 2.900 0.090
1.730 2.900 0.050
1.730 2.900 0.020
1.730 2.910 -0.530
1.730 2.910 -0.350
1.730 2.910 -0.210
1.730 2.910 0.280
1.730 2.910 0.490
1.730 2.910 0.440
1.730 2.910 -0.310
1.730 2.910 -0.730
1.730 2.910 -0.760
1.730 2.910 -0.680
1.730 2.910 0.720
1.730 2.920 0.030
1.730 2.920 -0.160
1.730 2.920 -0.190
1.730 2.920 0.260
1.730 2.920 0.210
1.730 2.920 -0.240
1.730 2.920 0.180
1.730 2.920 0.160
1.730 2.920 0.390
1.730 2.920 -0.470
1.730 2.920 -0.590
1.730 2.920 -0.660
1.730 2.920 -0.710
1.730 2.920 -1.510
1.730 2.920 -0.010
1.730 2.920 -1.440
1.730 2.930 -0.030
1.730 2.930 0.080
1.730 2.930 0.230
1.730 2.930 -0.520
1.730 2.930 -0.360
1.730 2.930 0.460
1.730 2.930 0.620
1.730 2.930 -0.570
1.730 2.930 -0.750
1.730 2.930 0.670
1.730 2.930 -1.460
1.730 2.930 -0.300
1.730 2.940 -0.320
1.730 2.940 -0.250
1.730 2.940 -0.100
1.730 2.940 -0.170
1.730 2.940 0.420
1.730 2.940 -0.400
1.730 2.940 0.510
1.730 2.940 0.650
1.730 2.950 -0.340
1.730 2.950 -0.120
1.730 2.950 0.200
1.730 2.950 -1.190
1.730 2.950 -1.000
1.730 2.950 -0.210
1.730 2.950 -1.470
1.730 2.950 -1.500
1.730 2.950 -1.530
1.730 2.950 -0.710
1.730 2.950 -0.780
1.730 2.950 0.530
1.730 2.950 0.100
1.730 2.960 -0.550
1.730 2.960 -0.840
1.730 2.960 -0.860
1.730 2.960 0.470
1.730 2.960 -0.380
1.730 2.960 0.450
1.730 2.960 0.290
1.730 2.960 0.570
1.730 2.970 -0.500
1.730 2.970 -0.460
1.730 2.970 -0.140
1.730 2.970 0.090
1.730 2.970 0.620
1.730 2.970 0.400
1.730 2.970 -0.810
1.730 2.970 -0.940
1.730 2.970 -0.990
1.730 2.970 -1.020
1.730 2.970 -0.570
1.730 2.970 0.550
1.730 2.980 -0.400
1.730 2.980 -0.520
1.730 2.980 -0.270
1.730 2.980 0.030
1.730 2.980 0.590
1.730 2.980 -1.450
1.730 2.980 -0.670
1.730 2.980 -0.620
1.730 2.980 -0.250
1.730 2.980 -0.300
1.730 2.980 -0.110
1.730 2.980 -0.160
1.730 2.980 -0.200
1.730 2.980 0.270
1.730 2.980 0.180
1.730 2.980 0.110
1.730 2.980 0.070
1.730 2.980 0.440
1.730 2.990 -0.080
1.730 2.990 -0.320
1.730 2.990 0.200
1.730 2.990 0.150
1.730 2.990 -0.030
1.730 2.990 0.320
1.730 2.990 0.510
1.730 2.990 -0.740
1.730 2.990 -1.470
1.730 2.990 -0.770
1.730 2.990 -0.790
1.730 2.990 -0.820
1.730 2.990 -0.870
1.730 2.990 -0.370
1.730 2.990 -0.490
1.730 2.990 -0.230
1.730 2.990 0.250
1.730 3.000 0.620
1.730 3.000 -0.420
1.730 3.000 -0.050
1.730 3.000 -0.120
1.730 3.000 0.470
1.730 3.000 -1.550
1.730 3.000 -1.260
1.730 3.000 -0.940
1.730 3.000 -0.530
1.730 3.000 -0.560
1.730 3.000 0.560
1.730 3.010 -0.590
1.730 3.010 -1.440
1.730 3.010 -0.280
1.730 3.010 -0.760
1.730 3.010 -0.810
1.730 3.010 -0.310
1.730 3.010 -0.090
1.730 3.010 -0.140
1.730 3.010 -1.290
1.730 3.010 -1.340
1.730 3.010 -1.020
1.730 3.010 -0.730
1.730 3.020 -0.400
1.730 3.020 0.440
1.730 3.020 -1.210
1.730 3.020 -1.320
1.730 3.020 -0.660
1.730 3.020 -0.780
1.730 3.020 -0.430
1.730 3.020 -0.220
1.730 3.020 0.290
1.730 3.020 -0.860
1.730 3.030 0.180
1.730 3.030 0.110
1.730 3.030 0.410
1.730 3.030 0.220
1.730 3.030 -0.830
1.730 3.030 -0.880
1.730 3.030 -0.910
1.730 3.040 0.270
1.730 3.040 -0.580
1.730 3.040 -0.940
1.730 3.040 -0.680
1.730 3.040 -0.550
1.730 3.040 -0.600
1.730 3.040 -1.160
1.730 3.050 -0.360
1.730 3.050 -0.100
1.730 3.050 -0.170
1.730 3.050 0.010
1.730 3.050 0.570
1.730 3.050 -1.210
1.730 3.050 -0.990
1.730 3.050 -0.710
1.730 3.050 -0.730
1.730 3.050 -0.810
1.730 3.050 -0.860
1.730 3.050 -0.890
1.730 3.050 -0.530
1.730 3.050 0.120
1.730 3.050 0.390
1.730 3.060 -0.080
1.730 3.060 -0.120
1.730 3.060 -0.970
1.730 3.060 -0.910
1.730 3.060 -0.410
1.730 3.070 -0.950
1.730 3.070 -0.770
1.730 3.070 -0.820
1.730 3.070 -1.410
1.730 3.070 -0.260
1.730 3.070 -0.310
1.730 3.070 -0.140
1.730 3.070 -0.190
1.730 3.070 0.490
1.730 3.070 0.420
1.730 3.070 0.340
1.730 3.070 -1.200
1.730 3.080 -0.640
1.730 3.080 -0.790
1.730 3.080 -0.920
1.730 3.080 -0.680
1.730 3.080 -0.330
1.730 3.080 0.390
1.730 3.080 -0.090
1.730 3.090 0.330
1.730 3.090 -0.570
1.730 3.090 -0.890
1.730 3.090 -0.940
1.730 3.090 -0.970
1.730 3.090 -0.810
1.730 3.090 -0.220
1.730 3.090 0.140
1.730 3.090 0.090
1.730 3.090 0.070
1.730 3.090 0.000
1.730 3.090 -0.050
1.730 3.100 -0.320
1.730 3.100 -0.370
1.730 3.100 -0.420
1.730 3.100 -0.500
1.730 3.100 -0.150
1.730 3.100 -0.250
1.730 3.100 0.230
1.730 3.100 0.500
1.730 3.100 -1.000
1.730 3.100 -0.440
1.730 3.100 -0.460
1.730 3.100 0.360
1.730 3.100 0.310
1.730 3.100 0.290
1.730 3.110 0.180
1.730 3.110 0.480
1.730 3.110 0.430
1.730 3.110 -1.390
1.730 3.110 -0.540
1.730 3.110 -0.590
1.730 3.110 -0.670
1.730 3.120 -1.230
1.730 3.120 -1.450
1.730 3.120 -1.010
1.730 3.120 -0.290
1.730 3.120 -0.340
1.730 3.120 -0.170
1.730 3.130 -0.420
1.730 3.130 -0.470
1.730 3.130 -0.490
1.730 3.130 -0.020
1.730 3.130 0.440
1.730 3.130 -0.670
1.730 3.140 -1.450
1.730 3.140 -0.320
1.730 3.140 -0.340
1.730 3.140 -0.120
1.730 3.140 -0.170
1.730 3.140 0.320
1.730 3.140 0.190
1.730 3.140 0.420
1.730 3.140 0.390
1.730 3.140 -1.370
1.730 3.140 -1.230
1.730 3.150 0.170
1.730 3.150 -0.750
1.730 3.150 -0.240
1.730 3.150 -1.430
1.730 3.160 -0.600
1.730 3.160 -0.270
1.730 3.160 -0.520
1.730 3.160 0.000
1.730 3.160 0.400
1.730 3.170 0.020
1.730 3.170 -0.020
1.730 3.170 -1.200
1.730 3.240 -0.850
1.730 3.250 -0.410
1.730 3.270 -0.420
1.740 -1.070 -1.610
1.740 -1.060 -1.630
1.740 -1.050 -1.610
1.740 -0.990 -1.610
1.740 -0.970 -1.600
1.740 -0.970 -1.630
1.740 -0.940 -1.610
1.740 -0.900 0.370
1.740 -0.890 -1.610
1.740 -0.860 -1.600
1.740 -0.860 0.380
1.740 -0.860 0.670
1.740 -0.850 0.550
1.740 -0.840 -1.600
1.740 -0.840 0.390
1.740 -0.840 0.510
1.740 -0.840 0.680
1.740 -0.840 0.480
1.740 -0.830 0.710
1.740 -0.830 0.530
1.740 -0.820 0.670
1.740 -0.820 0.400
1.740 -0.820 0.490
1.740 -0.810 0.550
1.740 -0.810 -1.610
1.740 -0.810 0.690
1.740 -0.810 0.650
1.740 -0.810 0.740
1.740 -0.800 -1.590
1.740 -0.800 0.390
1.740 -0.800 0.410
1.740 -0.790 0.730
1.740 -0.780 0.570
1.740 -0.770 0.400
1.740 -0.770 0.470
1.740 -0.770 0.640
1.740 -0.770 0.600
1.740 -0.760 0.500
1.740 -0.760 0.450
1.740 -0.760 0.560
1.740 -0.750 0.730
1.740 -0.750 0.430
1.740 -0.730 0.740
1.740 -0.730 0.460
1.740 -0.730 0.440
1.740 -0.730 -1.620
1.740 -0.720 0.780
1.740 -0.720 0.720
1.740 -0.720 -1.600
1.740 -0.710 0.740
1.740 -0.690 -1.600
1.740 -0.660 -1.620
1.740 -0.650 0.780
1.740 -0.630 -1.600
1.740 -0.620 0.770
1.740 -0.600 0.780
1.740 -0.600 -1.600
1.740 -0.590 -1.620
1.740 -0.580 0.770
1.740 -0.570 -1.630
1.740 -0.560 -1.590
1.740 -0.560 0.780
1.740 -0.540 0.770
1.740 -0.540 -1.600
1.740 -0.520 0.770
1.740 -0.520 -1.610
1.740 -0.510 -1.590
1.740 -0.500 -1.620
1.740 -0.480 -1.610
1.740 -0.460 0.780
1.740 -0.450 -1.620
1.740 -0.430 0.770
1.740 -0.420 -1.610
1.740 -0.380 -1.620
1.740 -0.360 -1.630
1.740 -0.330 -1.620
1.740 -0.330 0.780
1.740 -0.310 -1.610
1.740 -0.290 -1.610
1.740 -0.270 -1.620
1.740 -0.250 -1.620
1.740 -0.240 -1.600
1.740 -0.220 -1.610
1.740 -0.210 0.760
1.740 -0.190 -1.610
1.740 -0.190 0.770
1.740 -0.170 -1.620
1.740 -0.160 0.780
1.740 -0.160 -1.590
1.740 -0.150 -1.610
1.740 -0.140 0.760
1.740 -0.130 -1.590
1.740 -0.120 0.780
1.740 -0.110 -1.620
1.740 -0.070 0.770
1.740 -0.050 0.780
1.740 -0.050 0.750
1.740 -0.030 0.780
1.740 -0.020 -1.610
1.740 -0.020 0.760
1.740 0.000 -1.590
1.740 0.000 -1.620
1.740 0.000 0.750
1.740 0.030 0.760
1.740 0.050 -1.600
1.740 0.090 -1.600
1.740 0.110 -1.610
1.740 0.110 0.750
1.740 0.130 -1.600
1.740 0.140 0.790
1.740 0.170 0.750
1.740 0.170 -1.630
1.740 0.190 -1.620
1.740 0.250 -1.620
1.740 0.250 0.760
1.740 0.270 -1.620
1.740 0.270 0.760
1.740 0.280 0.780
1.740 0.300 0.770
1.740 0.320 0.780
1.740 0.320 -1.590
1.740 0.340 0.780
1.740 0.350 0.760
1.740 0.360 -1.620
1.740 0.380 -1.600
1.740 0.380 0.780
1.740 0.400 0.780
1.740 0.410 -1.610
1.740 0.420 -1.590
1.740 0.460 0.750
1.740 0.520 0.770
1.740 0.540 0.770
1.740 0.570 -1.590
1.740 0.630 0.760
1.740 0.650 0.770
1.740 0.670 -1.590
1.740 0.700 -1.620
1.740 0.780 -1.600
1.740 0.800 -1.590
1.740 0.860 -1.620
1.740 0.860 0.760
1.740 0.880 0.770
1.740 0.940 -1.610
1.740 0.970 -1.590
1.740 1.000 0.760
1.740 1.010 -1.600
1.740 1.020 0.770
1.740 1.040 0.780
1.740 1.050 0.760
1.740 1.070 0.760
1.740 1.080 0.780
1.740 1.090 -1.610
1.740 1.100 0.770
1.740 1.110 -1.600
1.740 1.120 0.780
1.740 1.150 -1.580
1.740 1.170 -1.590
1.740 1.180 -1.610
1.740 1.180 0.760
1.740 1.190 -1.590
1.740 1.200 0.780
1.740 1.210 -1.610
1.740 1.220 -1.590
1.740 1.240 -1.600
1.740 1.240 0.780
1.740 1.280 0.770
1.740 1.290 -1.610
1.740 1.330 -1.580
1.740 1.340 0.770
1.740 1.350 -1.610
1.740 1.410 0.770
1.740 1.420 -1.600
1.740 1.440 0.760
1.740 1.450 0.780
1.740 1.470 0.760
1.740 1.470 -1.600
1.740 1.490 0.770
1.740 1.510 -1.600
1.740 1.520 -1.580
1.740 1.540 -1.600
1.740 1.560 -1.590
1.740 1.600 0.780
1.740 1.620 -1.590
1.740 1.660 -1.600
1.740 1.660 0.780
1.740 1.690 -1.610
1.740 1.690 0.780
1.740 1.720 0.780
1.740 1.720 -1.580
1.740 1.750 0.780
1.740 1.770 0.770
1.740 1.780 -1.600
1.740 1.800 -1.590
1.740 1.810 0.770
1.740 1.810 0.790
1.740 1.830 0.780
1.740 1.870 0.780
1.740 1.870 -1.600
1.740 1.890 -1.590
1.740 1.920 0.790
1.740 1.950 -1.590
1.740 1.960 0.780
1.740 1.990 0.780
1.740 2.110 -1.580
1.740 2.140 -1.600
1.740 2.160 -1.580
1.740 2.200 0.780
1.740 2.220 0.790
1.740 2.310 -1.580
1.740 2.310 0.770
1.740 2.330 -1.590
1.740 2.350 0.750
1.740 2.350 -1.580
1.740 2.360 0.730
1.740 2.370 -1.590
1.740 2.370 0.790
1.740 2.380 -1.560
1.740 2.380 0.730
1.740 2.390 -1.510
1.740 2.390 0.770
1.740 2.390 -1.580
1.740 2.400 0.790
1.740 2.420 0.730
1.740 2.420 -1.520
1.740 2.430 -0.350
1.740 2.430 -0.370
1.740 2.430 -0.460
1.740 2.430 -0.190
1.740 2.430 -0.290
1.740 2.430 0.060
1.740 2.430 0.220
1.740 2.430 -1.550
1.740 2.430 -1.570
1.740 2.430 0.710
1.740 2.440 0.750
1.740 2.440 -1.430
1.740 2.440 -1.450
1.740 2.450 -1.310
1.740 2.450 -1.350
1.740 2.450 -1.380
1.740 2.450 -0.960
1.740 2.450 0.730
1.740 2.460 -1.560
1.740 2.460 -1.190
1.740 2.460 -1.230
1.740 2.460 -1.260
1.740 2.460 0.760
1.740 2.470 -1.460
1.740 2.470 -1.490
1.740 2.470 0.710
1.740 2.470 -1.070
1.740 2.470 -1.140
1.740 2.470 -1.590
1.740 2.470 -1.540
1.740 2.480 -1.340
1.740 2.480 -1.420
1.740 2.480 -1.570
1.740 2.480 -1.250
1.740 2.480 -1.010
1.740 2.490 -0.320
1.740 2.490 -0.340
1.740 2.490 -0.380
1.740 2.490 -0.420
1.740 2.490 -0.210
1.740 2.490 0.400
1.740 2.490 0.780
1.740 2.490 -1.290
1.740 2.490 -1.320
1.740 2.490 -1.370
1.740 2.490 -1.080
1.740 2.490 -1.120
1.740 2.500 -1.400
1.740 2.500 -0.030
1.740 2.500 -0.070
1.740 2.500 -0.170
1.740 2.500 0.190
1.740 2.500 0.090
1.740 2.500 0.020
1.740 2.500 0.230
1.740 2.500 0.600
1.740 2.500 -0.740
1.740 2.500 -1.150
1.740 2.500 -1.200
1.740 2.500 -1.270
1.740 2.500 -1.430
1.740 2.510 -0.360
1.740 2.510 0.140
1.740 2.510 0.450
1.740 2.510 -1.520
1.740 2.510 -1.570
1.740 2.510 -0.690
1.740 2.510 0.680
1.740 2.510 0.640
1.740 2.510 -0.980
1.740 2.510 -1.010
1.740 2.510 -1.550
1.740 2.510 -0.810
1.740 2.510 -0.930
1.740 2.510 -0.540
1.740 2.510 -0.770
1.740 2.510 -1.250
1.740 2.520 -1.500
1.740 2.520 0.580
1.740 2.520 0.530
1.740 2.520 -0.870
1.740 2.520 -0.960
1.740 2.520 -1.390
1.740 2.520 -0.790
1.740 2.520 -0.840
1.740 2.520 -1.050
1.740 2.520 -0.220
1.740 2.530 0.770
1.740 2.530 -1.420
1.740 2.530 -1.450
1.740 2.530 -0.650
1.740 2.530 -0.710
1.740 2.530 -0.760
1.740 2.530 -0.820
1.740 2.530 -0.560
1.740 2.530 0.700
1.740 2.530 -1.220
1.740 2.530 -1.350
1.740 2.530 -1.100
1.740 2.530 -1.140
1.740 2.530 -1.290
1.740 2.530 -0.350
1.740 2.530 -0.390
1.740 2.530 -0.450
1.740 2.530 -0.520
1.740 2.530 0.390
1.740 2.530 0.300
1.740 2.530 0.500
1.740 2.530 0.460
1.740 2.530 0.740
1.740 2.540 -0.630
1.740 2.540 -0.670
1.740 2.540 -0.580
1.740 2.540 0.640
1.740 2.540 0.570
1.740 2.540 -0.980
1.740 2.540 -1.030
1.740 2.540 -1.370
1.740 2.540 -1.320
1.740 2.540 -0.880
1.740 2.540 0.680
1.740 2.540 0.610
1.740 2.540 0.520
1.740 2.540 0.720
1.740 2.540 -0.030
1.740 2.540 -0.140
1.740 2.540 -1.190
1.740 2.550 -1.550
1.740 2.550 -0.340
1.740 2.550 -0.260
1.740 2.550 0.120
1.740 2.550 0.400
1.740 2.550 0.380
1.740 2.550 0.660
1.740 2.550 0.490
1.740 2.550 -0.840
1.740 2.550 -0.910
1.740 2.550 -0.940
1.740 2.550 -1.430
1.740 2.550 -1.480
1.740 2.550 -0.860
1.740 2.550 -1.050
1.740 2.550 -0.370
1.740 2.550 -0.050
1.740 2.550 0.260
1.740 2.550 0.150
1.740 2.560 -1.510
1.740 2.560 -0.570
1.740 2.560 -0.780
1.740 2.560 0.780
1.740 2.560 -0.440
1.740 2.560 0.740
1.740 2.570 -0.930
1.740 2.570 -1.000
1.740 2.570 -1.210
1.740 2.570 -1.440
1.740 2.570 -1.040
1.740 2.570 -0.490
1.740 2.570 0.410
1.740 2.570 0.700
1.740 2.570 0.590
1.740 2.570 -0.730
1.740 2.570 -0.850
1.740 2.570 -0.890
1.740 2.570 -0.960
1.740 2.580 -1.310
1.740 2.580 0.150
1.740 2.580 -1.490
1.740 2.580 0.350
1.740 2.580 0.300
1.740 2.580 -1.420
1.740 2.590 -0.820
1.740 2.590 -0.860
1.740 2.590 -1.460
1.740 2.600 -1.580
1.740 2.600 -1.510
1.740 2.600 -0.090
1.740 2.600 0.110
1.740 2.600 -1.060
1.740 2.610 -1.530
1.740 2.610 -0.370
1.740 2.610 0.740
1.740 2.610 -0.040
1.740 2.610 0.060
1.740 2.610 0.260
1.740 2.610 0.190
1.740 2.610 0.150
1.740 2.610 -1.320
1.740 2.620 -0.080
1.740 2.620 -0.190
1.740 2.620 0.210
1.740 2.620 0.170
1.740 2.620 0.490
1.740 2.620 0.450
1.740 2.620 0.380
1.740 2.620 0.340
1.740 2.620 -0.780
1.740 2.620 -0.830
1.740 2.620 0.720
1.740 2.620 0.760
1.740 2.620 -0.450
1.740 2.620 -0.520
1.740 2.620 -0.300
1.740 2.620 -0.410
1.740 2.620 0.410
1.740 2.620 -1.390
1.740 2.620 -1.460
1.740 2.620 -1.180
1.740 2.630 -0.020
1.740 2.630 -0.060
1.740 2.630 0.320
1.740 2.630 0.740
1.740 2.630 -0.340
1.740 2.630 -0.740
1.740 2.630 0.680
1.740 2.630 -0.960
1.740 2.630 -0.980
1.740 2.630 -1.230
1.740 2.630 -1.260
1.740 2.630 -1.310
1.740 2.640 -0.610
1.740 2.640 -1.580
1.740 2.640 -0.110
1.740 2.640 0.270
1.740 2.640 0.610
1.740 2.640 0.500
1.740 2.640 -1.520
1.740 2.640 -0.940
1.740 2.640 -1.360
1.740 2.650 0.050
1.740 2.650 0.760
1.740 2.650 -1.410
1.740 2.650 -1.340
1.740 2.650 -0.150
1.740 2.650 -1.550
1.740 2.650 -0.410
1.740 2.650 -0.190
1.740 2.650 -0.390
1.740 2.650 -0.080
1.740 2.650 -0.130
1.740 2.660 -1.210
1.740 2.660 -1.390
1.740 2.660 -1.130
1.740 2.660 -0.820
1.740 2.660 -0.870
1.740 2.660 0.440
1.740 2.660 0.460
1.740 2.660 0.420
1.740 2.660 0.010
1.740 2.660 -0.040
1.740 2.670 -0.960
1.740 2.670 -1.080
1.740 2.670 -0.680
1.740 2.670 -0.770
1.740 2.670 -0.790
1.740 2.670 -0.840
1.740 2.670 -1.320
1.740 2.670 -1.370
1.740 2.670 -1.420
1.740 2.670 -0.980
1.740 2.670 0.540
1.740 2.670 0.500
1.740 2.670 0.390
1.740 2.670 -0.200
1.740 2.670 -0.270
1.740 2.670 -0.310
1.740 2.670 -0.160
1.740 2.680 -1.400
1.740 2.680 -0.360
1.740 2.680 -0.450
1.740 2.680 -0.070
1.740 2.680 -0.090
1.740 2.680 -0.140
1.740 2.680 -0.250
1.740 2.680 0.170
1.740 2.680 0.080
1.740 2.680 0.050
1.740 2.680 0.410
1.740 2.680 0.340
1.740 2.680 0.300
1.740 2.680 -0.010
1.740 2.680 -0.120
1.740 2.680 0.430
1.740 2.680 0.680
1.740 2.680 -0.750
1.740 2.680 -0.660
1.740 2.690 -1.300
1.740 2.690 -0.230
1.740 2.690 0.460
1.740 2.690 0.280
1.740 2.690 -0.190
1.740 2.690 0.360
1.740 2.690 -1.130
1.740 2.690 -1.460
1.740 2.690 -0.990
1.740 2.690 -0.940
1.740 2.690 -0.300
1.740 2.690 -0.040
1.740 2.690 0.190
1.740 2.690 0.140
1.740 2.690 0.010
1.740 2.700 0.760
1.740 2.700 -1.420
1.740 2.700 -1.440
1.740 2.700 -1.010
1.740 2.700 -0.700
1.740 2.700 -1.150
1.740 2.700 -0.590
1.740 2.700 -0.410
1.740 2.700 -0.520
1.740 2.700 0.070
1.740 2.700 0.030
1.740 2.700 -0.370
1.740 2.700 -0.260
1.740 2.700 0.120
1.740 2.700 0.380
1.740 2.700 0.320
1.740 2.700 0.230
1.740 2.700 -0.470
1.740 2.700 -0.160
1.740 2.700 0.260
1.740 2.700 -0.320
1.740 2.700 -0.430
1.740 2.700 -0.020
1.740 2.700 -0.130
1.740 2.710 -0.570
1.740 2.710 -0.870
1.740 2.710 -1.110
1.740 2.710 -1.180
1.740 2.710 -0.910
1.740 2.710 -0.490
1.740 2.710 -0.210
1.740 2.710 -0.240
1.740 2.710 -0.080
1.740 2.710 0.290
1.740 2.710 0.520
1.740 2.710 0.450
1.740 2.710 -0.280
1.740 2.710 -0.390
1.740 2.710 -0.100
1.740 2.710 0.340
1.740 2.710 -0.740
1.740 2.710 0.710
1.740 2.710 -1.470
1.740 2.710 0.560
1.740 2.710 0.420
1.740 2.720 -0.460
1.740 2.720 -0.550
1.740 2.720 -1.090
1.740 2.720 -1.140
1.740 2.720 -1.390
1.740 2.720 -0.950
1.740 2.720 -0.440
1.740 2.720 -0.140
1.740 2.720 -0.300
1.740 2.720 0.140
1.740 2.720 -0.030
1.740 2.720 0.250
1.740 2.720 -0.710
1.740 2.720 0.370
1.740 2.720 -0.790
1.740 2.720 0.270
1.740 2.720 -1.270
1.740 2.730 -1.030
1.740 2.730 -1.210
1.740 2.730 -0.930
1.740 2.730 -0.980
1.740 2.730 -0.860
1.740 2.730 -0.120
1.740 2.730 -0.230
1.740 2.730 0.160
1.740 2.730 0.120
1.740 2.730 0.050
1.740 2.730 0.410
1.740 2.730 0.230
1.740 2.730 -0.660
1.740 2.730 -0.320
1.740 2.730 0.630
1.740 2.730 -1.290
1.740 2.730 0.180
1.740 2.730 0.300
1.740 2.730 0.590
1.740 2.740 -0.200
1.740 2.740 0.470
1.740 2.740 -0.510
1.740 2.740 -0.840
1.740 2.740 -1.190
1.740 2.740 -1.240
1.740 2.740 -1.590
1.740 2.740 -1.320
1.740 2.740 0.670
1.740 2.740 -0.020
1.740 2.740 -0.800
1.740 2.750 -1.520
1.740 2.750 -1.550
1.740 2.750 0.030
1.740 2.750 0.250
1.740 2.750 0.210
1.740 2.750 -0.460
